ply
format ascii 1.0
element vertex 687
property double x
property double y
property double z
property uchar red
property uchar green
property uchar blue
end_header
-43.861598999999998 -5.404448000000000 223.000000000000000 112 82 43
-43.389541999999999 -5.403230000000000 223.000000000000000 170 139 98
-42.917633000000002 -5.402026000000000 223.000000000000000 181 163 131
-42.636218999999997 -5.425055000000000 224.000000000000000 178 160 126
-42.162497999999999 -5.423875000000000 224.000000000000000 181 160 134
-41.688927000000000 -5.422709000000000 224.000000000000000 178 159 140
-41.215504000000003 -5.421558000000000 224.000000000000000 174 155 136
-40.742229000000002 -5.420422000000000 224.000000000000000 175 160 138
-40.448867999999997 -5.443493000000000 225.000000000000000 180 165 140
-39.973773999999999 -5.442380000000000 225.000000000000000 170 156 131
-39.498809999999999 -5.441282000000000 225.000000000000000 158 139 98
-39.023978999999997 -5.440199000000000 225.000000000000000 115 96 57
-38.549294000000003 -5.439130000000000 225.000000000000000 177 159 109
-38.074738000000004 -5.438076000000000 225.000000000000000 174 152 108
-37.600307000000001 -5.437037000000000 225.000000000000000 172 148 106
-37.126015000000002 -5.436011000000000 225.000000000000000 161 140 102
-36.651848000000001 -5.435000000000000 225.000000000000000 144 108 64
-36.177795000000003 -5.434003000000000 225.000000000000000 131 95 51
-35.703876000000001 -5.433022000000000 225.000000000000000 139 100 53
-35.230075999999997 -5.432054000000000 225.000000000000000 152 126 81
-34.756397000000000 -5.431101000000000 225.000000000000000 159 134 87
-34.282832999999997 -5.430163000000000 225.000000000000000 151 133 95
-33.809382999999997 -5.429239000000000 225.000000000000000 145 124 71
-33.336044000000001 -5.428329000000000 225.000000000000000 134 116 62
-32.862816000000002 -5.427433000000000 225.000000000000000 142 111 67
-32.533653000000001 -5.450671000000000 226.000000000000000 146 116 70
-32.058537000000001 -5.449799000000000 226.000000000000000 139 120 81
-31.583530000000000 -5.448944000000000 226.000000000000000 123 108 70
-31.108623999999999 -5.448102000000000 226.000000000000000 123 108 70
-30.633820000000000 -5.447275000000000 226.000000000000000 129 103 72
-30.292559000000001 -5.470561000000000 227.000000000000000 86 77 41
-29.947196999999999 -5.493855000000000 228.000000000000000 83 75 13
-29.597733000000002 -5.517156000000000 229.000000000000000 96 88 24
-29.244160000000001 -5.540465000000000 230.000000000000000 108 99 49
-28.886486000000001 -5.563782000000000 231.000000000000000 119 111 61
-28.401751999999998 -5.563025000000000 231.000000000000000 132 131 80
-27.917110000000001 -5.562282000000000 231.000000000000000 133 123 79
-27.313797000000001 -5.537478000000000 230.000000000000000 138 130 83
-26.714762000000000 -5.512694000000000 229.000000000000000 134 119 87
-26.120004999999999 -5.487932000000000 228.000000000000000 126 112 72
-25.417048999999999 -5.439122000000000 226.000000000000000 82 71 45
-24.832933000000001 -5.414403000000000 225.000000000000000 45 51 35
-24.253084000000001 -5.389704000000000 224.000000000000000 46 52 36
-23.677496000000001 -5.365025000000000 223.000000000000000 49 54 41
-23.210251000000000 -5.364420000000000 223.000000000000000 52 52 37
-22.743075999999999 -5.363830000000000 223.000000000000000 44 49 31
-22.275963000000001 -5.363254000000000 223.000000000000000 45 51 33
-21.808917999999998 -5.362692000000000 223.000000000000000 43 53 31
-21.341933999999998 -5.362144000000000 223.000000000000000 45 57 34
-20.875012999999999 -5.361610000000000 223.000000000000000 40 47 29
-20.408148000000001 -5.361091000000000 223.000000000000000 42 44 26
-20.030761999999999 -5.384624000000000 224.000000000000000 40 43 22
-19.736578000000002 -5.432202000000000 226.000000000000000 44 43 16
-19.263597000000001 -5.431718000000000 226.000000000000000 49 47 20
-18.790668000000000 -5.431248000000000 226.000000000000000 79 69 19
-18.236744000000002 -5.406763000000000 225.000000000000000 138 124 95
-17.608087999999999 -5.358267000000000 223.000000000000000 173 160 140
-17.064709000000001 -5.333819000000000 222.000000000000000 178 165 147
-16.525558000000000 -5.309389000000000 221.000000000000000 170 157 143
-16.136002999999999 -5.333021000000000 222.000000000000000 162 152 131
-15.671711999999999 -5.332644000000000 222.000000000000000 149 139 117
-15.207456000000001 -5.332279000000000 222.000000000000000 148 134 99
-14.743237000000001 -5.331930000000000 222.000000000000000 147 132 96
-14.279051000000001 -5.331594000000000 222.000000000000000 134 118 61
-13.814897000000000 -5.331271000000000 222.000000000000000 113 92 31
-13.290634000000001 -5.306950000000000 221.000000000000000 99 83 30
-12.828628999999999 -5.306656000000000 221.000000000000000 115 98 44
-12.366650000000000 -5.306378000000000 221.000000000000000 125 115 86
-11.904693000000000 -5.306112000000000 221.000000000000000 144 132 103
-11.442760000000000 -5.305861000000000 221.000000000000000 152 134 117
-10.980848000000000 -5.305623000000000 221.000000000000000 148 115 92
-10.518953000000000 -5.305399000000000 221.000000000000000 137 105 81
-10.057077000000000 -5.305189000000000 221.000000000000000 122 90 53
-9.595214000000000 -5.304993000000000 221.000000000000000 108 83 26
-9.133364000000000 -5.304811000000000 221.000000000000000 118 93 35
-8.671525000000001 -5.304642000000000 221.000000000000000 147 113 62
-8.246843999999999 -5.328490000000000 222.000000000000000 152 119 69
-7.782932000000000 -5.328348000000000 222.000000000000000 173 154 123
-7.319026000000000 -5.328220000000000 222.000000000000000 212 207 193
-6.855124000000000 -5.328107000000000 222.000000000000000 224 216 202
-6.420012000000000 -5.352007000000000 223.000000000000000 197 170 137
-5.954022000000000 -5.351920000000000 223.000000000000000 150 123 92
-5.488030000000000 -5.351848000000000 223.000000000000000 134 105 46
-5.044555000000000 -5.375789000000000 224.000000000000000 133 108 44
-4.576463000000000 -5.375744000000000 224.000000000000000 142 118 53
-4.108365000000000 -5.375712000000000 224.000000000000000 155 125 73
-3.656507000000000 -5.399694000000000 225.000000000000000 158 130 77
-3.186299000000000 -5.399692000000000 225.000000000000000 157 131 68
-2.716076000000000 -5.399704000000000 225.000000000000000 147 130 66
-2.245839000000000 -5.399728000000000 225.000000000000000 160 143 79
-1.783476000000000 -5.423767000000000 226.000000000000000 173 147 111
-1.311112000000000 -5.423820000000000 226.000000000000000 177 151 116
-0.838728000000000 -5.423888000000000 226.000000000000000 190 163 132
-0.366321000000000 -5.423969000000000 226.000000000000000 188 168 131
0.106111000000000 -5.424065000000000 226.000000000000000 186 164 129
0.578569000000000 -5.424175000000000 226.000000000000000 186 163 133
1.051056000000000 -5.424300000000000 226.000000000000000 177 156 123
1.523573000000000 -5.424438000000000 226.000000000000000 171 147 91
1.996122000000000 -5.424590000000000 226.000000000000000 177 148 100
2.468705000000000 -5.424757000000000 226.000000000000000 178 149 102
2.928309000000000 -5.400933000000000 225.000000000000000 161 133 82
3.383769000000000 -5.377122000000000 224.000000000000000 150 121 47
3.835084000000000 -5.353323000000000 223.000000000000000 167 135 74
4.262969000000000 -5.305529000000000 221.000000000000000 198 167 130
4.682528000000000 -5.257746000000000 219.000000000000000 193 150 100
5.117237000000000 -5.233979000000000 218.000000000000000 193 150 100
5.573372000000000 -5.234235000000000 218.000000000000000 193 138 90
6.029556000000000 -5.234505000000000 218.000000000000000 198 134 100
6.485788000000000 -5.234788000000000 218.000000000000000 197 132 97
6.942072000000000 -5.235085000000000 218.000000000000000 197 123 105
7.432346000000000 -5.259410000000000 219.000000000000000 190 118 98
7.890830000000000 -5.259736000000000 219.000000000000000 183 104 82
8.387497000000000 -5.284094000000000 220.000000000000000 172 83 58
8.848190000000001 -5.284448000000000 220.000000000000000 165 78 53
9.351259000000001 -5.308838000000000 221.000000000000000 157 68 49
-107.450226000000001 -7.863304000000000 291.000000000000000 173 167 71
-106.440574999999995 -7.832935000000000 290.000000000000000 172 163 70
-105.800651999999999 -7.829613000000000 290.000000000000000 172 161 39
-105.161224000000004 -7.826313000000000 290.000000000000000 175 156 39
-104.522255000000001 -7.823036000000000 290.000000000000000 176 157 40
-103.883751000000004 -7.819782000000000 290.000000000000000 185 160 44
-103.245682000000002 -7.816551000000000 290.000000000000000 187 167 44
-102.608101000000005 -7.813343000000000 290.000000000000000 187 169 31
-101.970962999999998 -7.810157000000000 290.000000000000000 185 167 29
-101.334273999999994 -7.806995000000000 290.000000000000000 185 165 32
-100.698020999999997 -7.803854000000000 290.000000000000000 186 162 44
-100.062209999999993 -7.800736000000000 290.000000000000000 191 168 49
-99.426826000000005 -7.797642000000000 290.000000000000000 188 169 49
-98.791893000000002 -7.794569000000000 290.000000000000000 185 167 46
-98.157387000000000 -7.791520000000000 290.000000000000000 185 167 46
-97.523262000000003 -7.788490000000000 290.000000000000000 184 168 40
-96.889587000000006 -7.785486000000000 290.000000000000000 183 165 31
-96.256332000000000 -7.782503000000000 290.000000000000000 183 165 31
-95.623489000000006 -7.779541000000000 290.000000000000000 182 168 31
-94.991034999999997 -7.776602000000000 290.000000000000000 181 167 31
-94.684380000000004 -7.800491000000000 291.000000000000000 181 167 31
-94.050545000000000 -7.797585000000000 291.000000000000000 180 168 28
-93.417136999999997 -7.794703000000000 291.000000000000000 180 168 28
-93.102951000000004 -7.818619000000000 292.000000000000000 176 169 22
-92.468147000000002 -7.815770000000000 292.000000000000000 176 163 15
-92.148201000000000 -7.839699000000000 293.000000000000000 178 167 17
-91.512000999999998 -7.836885000000000 293.000000000000000 181 164 22
-91.496475000000004 -7.887567000000000 295.000000000000000 182 165 24
-91.164658000000003 -7.911505000000000 296.000000000000000 184 164 30
-90.523087000000004 -7.908728000000000 296.000000000000000 182 163 36
-90.489182000000000 -7.959393000000000 298.000000000000000 181 161 34
-90.145493000000002 -7.983340000000000 299.000000000000000 184 162 24
-90.097183000000001 -8.033984000000000 301.000000000000000 176 156 18
-90.040581000000003 -8.084612000000000 303.000000000000000 167 138 16
-89.680695000000000 -8.108554000000000 304.000000000000000 180 151 28
-89.902541999999997 -8.185828000000001 307.000000000000000 169 160 40
-89.530417999999997 -8.209762000000000 308.000000000000000 168 160 39
-89.154358000000002 -8.233701000000000 309.000000000000000 164 160 33
-88.774330000000006 -8.257644000000001 310.000000000000000 162 158 31
-88.674567999999994 -8.308222000000001 312.000000000000000 161 158 46
-88.284469999999999 -8.332166000000001 313.000000000000000 158 152 42
-88.170340999999993 -8.382730000000000 315.000000000000000 162 139 82
-87.492446999999999 -8.380075000000000 315.000000000000000 117 93 59
-86.814880000000002 -8.377440999999999 315.000000000000000 118 94 60
-86.684593000000007 -8.428006000000000 317.000000000000000 117 97 74
-86.003410000000002 -8.425402999999999 317.000000000000000 130 109 86
-85.322593999999995 -8.422822999999999 317.000000000000000 123 115 104
-85.176124999999999 -8.473390000000000 319.000000000000000 123 121 112
-84.491684000000006 -8.470839000000000 319.000000000000000 123 121 112
-83.544830000000005 -8.441765000000000 318.000000000000000 134 135 131
-82.602631000000002 -8.412727000000000 317.000000000000000 149 156 148
-55.190624000000000 -5.805224000000000 219.000000000000000 99 43 28
-54.472400999999998 -5.777081000000000 218.000000000000000 96 41 26
-54.006408999999998 -5.775462000000000 218.000000000000000 103 41 28
-53.540615000000003 -5.773858000000000 218.000000000000000 106 45 34
-52.831561999999998 -5.745791000000000 217.000000000000000 108 48 36
-52.368313000000001 -5.744225000000000 217.000000000000000 121 57 51
-51.666065000000003 -5.716210000000000 216.000000000000000 139 57 51
-51.205348999999998 -5.714682000000000 216.000000000000000 143 68 44
-50.744822999999997 -5.713169000000000 216.000000000000000 149 74 52
-50.051693000000000 -5.685228000000000 215.000000000000000 151 86 60
-49.363007000000003 -5.657315000000000 214.000000000000000 152 96 60
-48.907310000000003 -5.655861000000000 214.000000000000000 151 95 59
-48.225383999999998 -5.627999000000000 213.000000000000000 156 105 73
-47.772179000000001 -5.626581000000000 213.000000000000000 154 102 84
-47.541305999999999 -5.651587000000000 214.000000000000000 158 105 87
-47.306355000000003 -5.676594000000000 215.000000000000000 147 112 95
-47.067329000000001 -5.701605000000000 216.000000000000000 149 116 96
-46.824230000000000 -5.726616000000000 217.000000000000000 140 120 85
-47.004364000000002 -5.804398000000000 220.000000000000000 140 120 85
-46.748866999999997 -5.829402000000000 221.000000000000000 145 126 92
-46.489296000000003 -5.854410000000000 222.000000000000000 145 126 92
-45.811073000000000 -5.826689000000000 221.000000000000000 147 133 86
-45.342421999999999 -5.825355000000000 221.000000000000000 147 132 85
-44.873939999999997 -5.824037000000000 221.000000000000000 149 133 84
-44.606552000000001 -5.849080000000000 222.000000000000000 151 133 77
-44.136271999999998 -5.847785000000000 222.000000000000000 111 94 39
-43.666161000000002 -5.846507000000000 222.000000000000000 104 75 37
-43.196193999999998 -5.845243000000000 222.000000000000000 160 133 94
-42.726391000000000 -5.843994000000000 222.000000000000000 167 136 97
-42.447082999999999 -5.869079000000000 223.000000000000000 164 139 99
-41.975464000000002 -5.867855000000000 223.000000000000000 178 154 113
-41.503990000000002 -5.866646000000000 223.000000000000000 180 159 134
-41.032673000000003 -5.865453000000000 223.000000000000000 181 161 138
-40.743381999999997 -5.890571000000000 224.000000000000000 183 163 140
-40.270237000000002 -5.889403000000000 224.000000000000000 177 162 140
-39.797234000000003 -5.888250000000000 224.000000000000000 173 159 135
-39.324368000000000 -5.887111000000000 224.000000000000000 164 149 118
-38.851635000000002 -5.885988000000000 224.000000000000000 116 88 44
-38.379040000000003 -5.884880000000000 224.000000000000000 147 119 73
-37.906573999999999 -5.883788000000000 224.000000000000000 154 131 92
-37.434249999999999 -5.882710000000000 224.000000000000000 169 143 95
-36.962043999999999 -5.881647000000000 224.000000000000000 144 116 70
-36.489967000000000 -5.880599000000000 224.000000000000000 124 73 27
-36.018017000000000 -5.879567000000000 224.000000000000000 110 59 13
-35.546180999999997 -5.878550000000000 224.000000000000000 147 95 47
-35.074471000000003 -5.877547000000000 224.000000000000000 149 119 70
-34.602885999999998 -5.876560000000000 224.000000000000000 154 121 72
-34.131405000000001 -5.875587000000000 224.000000000000000 136 120 64
-33.660049000000001 -5.874630000000000 224.000000000000000 137 118 65
-33.188797000000001 -5.873688000000000 224.000000000000000 146 125 72
-32.717666999999999 -5.872760000000000 224.000000000000000 159 126 95
-32.246631999999998 -5.871848000000000 224.000000000000000 158 131 111
-31.775711000000001 -5.870950000000000 224.000000000000000 151 124 106
-31.304890000000000 -5.870068000000000 224.000000000000000 143 117 88
-30.558868000000000 -5.816797000000000 222.000000000000000 140 112 82
-30.092448999999998 -5.815952000000000 222.000000000000000 147 119 88
-29.759578999999999 -5.841316000000000 223.000000000000000 160 152 126
-29.422604000000000 -5.866686000000000 224.000000000000000 178 172 147
-29.210785000000001 -5.918253000000000 226.000000000000000 176 189 168
-28.736340999999999 -5.917452000000000 226.000000000000000 184 197 174
-28.387056000000001 -5.942848000000000 227.000000000000000 170 173 139
-27.910698000000000 -5.942074000000000 227.000000000000000 168 159 130
-27.434432999999999 -5.941316000000000 227.000000000000000 164 156 126
-26.839493000000001 -5.914402000000000 226.000000000000000 143 131 80
-26.248829000000001 -5.887510000000000 225.000000000000000 121 110 61
-25.662441000000001 -5.860640000000000 224.000000000000000 108 99 69
-25.192795000000000 -5.859951000000000 224.000000000000000 70 61 30
-24.612852000000000 -5.833119000000000 223.000000000000000 52 58 31
-24.145448999999999 -5.832462000000000 223.000000000000000 51 61 35
-23.571939000000000 -5.805669000000000 222.000000000000000 53 65 37
-23.106774999999999 -5.805044000000000 222.000000000000000 47 54 31
-22.641680000000001 -5.804434000000000 222.000000000000000 52 53 30
-22.076754000000001 -5.777696000000000 221.000000000000000 57 58 35
-21.613883999999999 -5.777118000000000 221.000000000000000 52 55 37
-21.151074999999999 -5.776556000000000 221.000000000000000 45 52 31
-20.688324000000001 -5.776007000000000 221.000000000000000 46 53 32
-20.225633999999999 -5.775473000000000 221.000000000000000 60 69 36
-19.762996999999999 -5.774953000000000 221.000000000000000 95 107 69
-19.475079999999998 -5.826705000000000 223.000000000000000 95 107 69
-18.923126000000000 -5.800084000000000 222.000000000000000 147 148 108
-18.458556999999999 -5.799606000000000 222.000000000000000 164 167 125
-17.912979000000000 -5.773020000000000 221.000000000000000 169 157 103
-17.371635000000001 -5.746453000000000 220.000000000000000 176 170 131
-16.911387999999999 -5.746023000000000 220.000000000000000 175 159 134
-16.451183000000000 -5.745607000000000 220.000000000000000 169 151 126
-15.991021999999999 -5.745205000000000 220.000000000000000 160 155 121
-15.601493000000000 -5.770931000000000 221.000000000000000 152 147 113
-15.139313000000000 -5.770556000000000 221.000000000000000 148 139 100
-14.677173000000000 -5.770196000000000 221.000000000000000 148 140 96
-14.215064000000000 -5.769851000000000 221.000000000000000 145 135 92
-13.752986999999999 -5.769521000000000 221.000000000000000 98 82 40
-13.290938000000001 -5.769204000000000 221.000000000000000 57 36 0
-12.828918000000000 -5.768901000000000 221.000000000000000 78 57 17
-12.366923999999999 -5.768614000000000 221.000000000000000 115 84 56
-11.904956000000000 -5.768342000000000 221.000000000000000 119 90 60
-11.443008000000001 -5.768083000000000 221.000000000000000 116 80 51
-10.981081000000000 -5.767838000000000 221.000000000000000 98 65 19
-10.519175000000001 -5.767610000000000 221.000000000000000 100 67 21
-10.057282000000001 -5.767394000000000 221.000000000000000 117 82 45
-9.595407000000000 -5.767193000000000 221.000000000000000 111 82 52
-9.133540999999999 -5.767006000000000 221.000000000000000 113 83 53
-8.671688000000000 -5.766834000000000 221.000000000000000 143 102 52
-8.209846000000001 -5.766677000000000 221.000000000000000 134 105 53
-7.748009000000000 -5.766534000000000 221.000000000000000 173 146 93
-7.286179000000000 -5.766405000000000 221.000000000000000 203 194 170
-6.855231000000000 -5.792383000000000 222.000000000000000 211 201 177
-6.391316000000000 -5.792282000000000 222.000000000000000 170 160 123
-5.927402000000000 -5.792197000000000 222.000000000000000 162 149 115
-5.463484000000000 -5.792126000000000 222.000000000000000 142 129 94
-5.022085000000000 -5.818160000000000 223.000000000000000 140 118 55
-4.556069000000000 -5.818117000000000 223.000000000000000 139 117 54
-4.090046000000000 -5.818089000000000 223.000000000000000 149 113 61
-3.640265000000000 -5.844166000000000 224.000000000000000 155 119 67
-3.172131000000000 -5.844167000000000 224.000000000000000 129 94 28
-2.703984000000000 -5.844183000000000 224.000000000000000 123 97 18
-2.235822000000000 -5.844213000000000 224.000000000000000 132 105 24
-1.767643000000000 -5.844259000000000 224.000000000000000 147 118 45
-1.299446000000000 -5.844318000000000 224.000000000000000 176 149 108
-0.834938000000000 -5.870484000000000 225.000000000000000 185 158 116
-0.364607000000000 -5.870573000000000 225.000000000000000 180 159 119
0.105748000000000 -5.870676000000000 225.000000000000000 183 161 122
0.573570000000000 -5.844704000000000 224.000000000000000 165 145 82
1.041890000000000 -5.844836000000000 224.000000000000000 162 136 71
1.510239000000000 -5.844983000000000 224.000000000000000 172 146 81
1.978621000000000 -5.845145000000000 224.000000000000000 185 158 113
2.436112000000000 -5.819227000000000 223.000000000000000 184 159 116
2.876440000000000 -5.767225000000000 221.000000000000000 162 138 78
3.323547000000000 -5.741331000000000 220.000000000000000 152 113 56
3.766510000000000 -5.715449000000000 219.000000000000000 154 115 57
4.205329000000000 -5.689580000000000 218.000000000000000 186 132 93
4.618624000000000 -5.637623000000000 216.000000000000000 195 136 95
5.070544000000000 -5.637877000000000 216.000000000000000 195 134 100
5.548076000000000 -5.664249000000000 217.000000000000000 195 134 100
6.002180000000000 -5.664534000000000 217.000000000000000 198 130 98
6.456334000000000 -5.664832000000000 217.000000000000000 188 111 62
6.910537000000000 -5.665144000000000 217.000000000000000 180 103 53
7.398734000000000 -5.691579000000000 218.000000000000000 173 86 41
7.891171000000000 -5.718032000000000 219.000000000000000 162 75 30
8.349728000000001 -5.718390000000000 219.000000000000000 159 64 41
8.808342000000000 -5.718764000000000 219.000000000000000 156 60 37
9.351646000000001 -5.771379000000000 221.000000000000000 154 59 45
-106.443984999999998 -8.450355999999999 290.000000000000000 152 150 135
-105.804039000000003 -8.446888000000000 290.000000000000000 152 154 133
-105.164580999999998 -8.443443000000000 290.000000000000000 155 151 124
-104.525574000000006 -8.440025000000000 290.000000000000000 154 150 123
-103.887062000000000 -8.436629999999999 290.000000000000000 173 162 91
-103.605011000000005 -8.462337000000000 291.000000000000000 180 168 60
-102.611366000000004 -8.429912000000000 290.000000000000000 178 171 37
-101.974204999999998 -8.426588000000001 290.000000000000000 177 170 36
-101.337494000000007 -8.423289000000000 290.000000000000000 174 169 35
-100.701217999999997 -8.420012000000000 290.000000000000000 178 167 46
-100.065383999999995 -8.416760999999999 290.000000000000000 180 168 47
-99.429985000000002 -8.413532000000000 290.000000000000000 183 162 45
-98.795012999999997 -8.410327000000001 290.000000000000000 182 162 39
-98.160477000000000 -8.407145999999999 290.000000000000000 182 162 39
-97.526359999999997 -8.403988000000000 290.000000000000000 174 165 43
-97.226768000000007 -8.429822000000000 291.000000000000000 174 165 43
-96.591285999999997 -8.426698999999999 291.000000000000000 173 164 39
-95.956253000000004 -8.423602000000001 291.000000000000000 173 163 45
-95.321586999999994 -8.420526000000001 291.000000000000000 173 163 45
-95.012741000000005 -8.446399000000000 292.000000000000000 176 161 44
-94.376716999999999 -8.443358999999999 292.000000000000000 175 164 32
-93.741104000000007 -8.440343000000000 292.000000000000000 174 163 31
-93.424721000000005 -8.466245000000001 293.000000000000000 175 164 34
-92.787711999999999 -8.463264000000001 293.000000000000000 178 165 19
-92.465591000000003 -8.489182000000000 294.000000000000000 177 164 18
-92.139542000000006 -8.515102000000001 295.000000000000000 178 163 21
-92.119675000000001 -8.569879999999999 297.000000000000000 178 163 21
-91.783501000000001 -8.595798000000000 298.000000000000000 178 164 27
-91.749222000000003 -8.650553000000000 300.000000000000000 178 164 27
-91.706657000000007 -8.705294000000000 302.000000000000000 175 164 23
-91.655799999999999 -8.760018000000001 304.000000000000000 175 164 23
-91.596656999999993 -8.814729000000000 306.000000000000000 171 160 29
-91.529235999999997 -8.869425000000000 308.000000000000000 160 149 18
-91.158524000000000 -8.895318000000000 309.000000000000000 134 120 60
-91.076735999999997 -8.949997000000000 311.000000000000000 131 117 57
-90.986664000000005 -9.004661000000000 313.000000000000000 129 115 73
-90.599784999999997 -9.030552999999999 314.000000000000000 129 115 73
-89.922600000000003 -9.027699999999999 314.000000000000000 125 113 74
-89.814200999999997 -9.082354000000000 316.000000000000000 131 119 79
-89.133414999999999 -9.079530999999999 316.000000000000000 129 122 82
-88.732894999999999 -9.105454999999999 317.000000000000000 131 117 100
-88.328423000000001 -9.131387000000000 318.000000000000000 119 106 90
-87.644379000000001 -9.128617999999999 318.000000000000000 116 98 93
-87.234183999999999 -9.154572000000000 319.000000000000000 115 111 99
-86.548691000000005 -9.151842000000000 319.000000000000000 118 116 103
-85.863563999999997 -9.149138000000001 319.000000000000000 121 118 105
-85.445746999999997 -9.175128000000001 320.000000000000000 123 121 108
-84.759147999999996 -9.172461999999999 320.000000000000000 134 126 118
-84.072868000000000 -9.169822000000000 320.000000000000000 134 135 119
-83.386909000000003 -9.167203000000001 320.000000000000000 150 154 136
-82.184380000000004 -9.107331000000000 318.000000000000000 157 160 149
-54.474060000000001 -6.236484000000000 218.000000000000000 96 43 24
-54.008052999999997 -6.234798000000000 218.000000000000000 98 41 17
-53.296635000000002 -6.204535000000000 217.000000000000000 103 47 20
-52.833171999999998 -6.202889000000000 217.000000000000000 105 51 23
-52.128563000000000 -6.172681000000000 216.000000000000000 116 55 34
-51.667636999999999 -6.171074000000000 216.000000000000000 118 57 41
-50.969830000000002 -6.140920000000000 215.000000000000000 130 65 39
-50.511425000000003 -6.139352000000000 215.000000000000000 134 69 43
-49.820399999999999 -6.109252000000000 214.000000000000000 144 82 47
-49.364497999999998 -6.107721000000000 214.000000000000000 144 82 49
-48.680244000000002 -6.077675000000000 213.000000000000000 151 92 61
-48.226844999999997 -6.076183000000000 213.000000000000000 155 95 65
-47.549323999999999 -6.046187000000000 212.000000000000000 160 99 79
-47.098412000000003 -6.044734000000000 212.000000000000000 156 108 92
-46.647671000000003 -6.043295000000000 212.000000000000000 157 108 93
-46.197102000000001 -6.041873000000000 212.000000000000000 148 106 83
-45.746699999999997 -6.040464000000000 212.000000000000000 140 107 82
-45.723793000000001 -6.096045000000000 214.000000000000000 147 113 88
-45.481026000000000 -6.123135000000000 215.000000000000000 147 113 88
-45.653010999999999 -6.207173000000000 218.000000000000000 142 121 82
-45.190548000000000 -6.205788000000000 218.000000000000000 142 121 82
-44.933422000000000 -6.232880000000000 219.000000000000000 145 130 83
-44.469169999999998 -6.231521000000000 219.000000000000000 139 123 79
-44.206004999999998 -6.258625000000000 220.000000000000000 139 123 77
-43.739955999999999 -6.257291000000000 220.000000000000000 123 94 68
-43.470753000000002 -6.284408000000000 221.000000000000000 155 123 97
-43.002898999999999 -6.283100000000000 221.000000000000000 155 115 86
-42.535187000000001 -6.281806000000000 221.000000000000000 126 87 59
-42.257987999999997 -6.308948000000000 222.000000000000000 126 83 53
-41.788466999999997 -6.307681000000000 222.000000000000000 163 120 88
-41.319096000000002 -6.306428000000000 222.000000000000000 151 119 91
-41.033881999999998 -6.333595000000000 223.000000000000000 175 154 134
-40.562686999999997 -6.332370000000000 223.000000000000000 184 161 142
-40.091639999999998 -6.331160000000000 223.000000000000000 175 159 134
-39.620728000000000 -6.329966000000000 223.000000000000000 176 160 136
-39.149956000000003 -6.328787000000000 223.000000000000000 124 108 70
-38.852767999999998 -6.356000000000000 224.000000000000000 113 81 31
-38.380169000000002 -6.354848000000000 224.000000000000000 121 87 39
-37.907684000000003 -6.353713000000000 224.000000000000000 136 115 71
-37.435341000000001 -6.352592000000000 224.000000000000000 152 119 80
-36.963115999999999 -6.351488000000000 224.000000000000000 116 82 44
-36.491028000000000 -6.350399000000000 224.000000000000000 105 62 27
-36.019061999999998 -6.349326000000000 224.000000000000000 106 64 28
-35.547210999999997 -6.348269000000000 224.000000000000000 131 92 64
-34.918903000000000 -6.318891000000000 223.000000000000000 144 122 74
-34.449398000000002 -6.317870000000000 223.000000000000000 134 116 60
-33.980015000000002 -6.316864000000000 223.000000000000000 137 118 62
-33.510742000000000 -6.315874000000000 223.000000000000000 142 124 70
-33.041584000000000 -6.314898000000000 223.000000000000000 149 134 79
-32.426464000000003 -6.285626000000000 222.000000000000000 162 132 97
-31.959633000000000 -6.284687000000000 222.000000000000000 159 131 111
-31.492895000000001 -6.283763000000000 222.000000000000000 164 147 108
-30.886509000000000 -6.254554000000000 221.000000000000000 147 132 93
-30.284421999999999 -6.225368000000000 220.000000000000000 143 126 79
-29.822195000000001 -6.224498000000000 220.000000000000000 155 151 118
-29.360060000000001 -6.223644000000000 220.000000000000000 176 173 140
-29.160730000000001 -6.279375000000000 222.000000000000000 171 178 158
-28.823837000000001 -6.306826000000000 223.000000000000000 171 178 158
-28.355685999999999 -6.306006000000000 223.000000000000000 168 164 136
-27.887625000000000 -6.305202000000000 223.000000000000000 170 168 138
-27.419647000000001 -6.304414000000000 223.000000000000000 171 161 134
-26.951758999999999 -6.303641000000000 223.000000000000000 150 136 99
-26.483951999999999 -6.302883000000000 223.000000000000000 129 113 78
-26.016228000000002 -6.302140000000000 223.000000000000000 132 122 75
-25.434017000000001 -6.273157000000000 222.000000000000000 131 122 95
-24.968544000000001 -6.272448000000000 222.000000000000000 95 87 60
-24.503149000000001 -6.271755000000000 222.000000000000000 66 59 30
-23.929552000000001 -6.242829000000000 221.000000000000000 66 74 19
-23.466398000000002 -6.242170000000000 221.000000000000000 88 84 41
-22.899227000000000 -6.213283000000000 220.000000000000000 83 79 34
-22.438309000000000 -6.212657000000000 220.000000000000000 96 84 43
-21.977450999999999 -6.212046000000000 220.000000000000000 92 79 46
-21.516660999999999 -6.211451000000000 220.000000000000000 79 66 33
-21.055931000000001 -6.210870000000000 220.000000000000000 62 66 32
-20.595261000000001 -6.210304000000000 220.000000000000000 92 95 59
-20.043126999999998 -6.181528000000000 219.000000000000000 132 134 98
-19.584662999999999 -6.180994000000000 219.000000000000000 151 158 122
-19.213588999999999 -6.208697000000000 220.000000000000000 157 161 129
-18.667895999999999 -6.179973000000000 219.000000000000000 173 170 136
-18.209586999999999 -6.179485000000000 219.000000000000000 181 171 133
-17.670271000000000 -6.150798000000000 218.000000000000000 197 195 163
-17.214151000000001 -6.150342000000000 218.000000000000000 193 190 160
-16.834945999999999 -6.178112000000000 219.000000000000000 170 159 133
-16.376819999999999 -6.177684000000000 219.000000000000000 164 152 125
-15.918736000000001 -6.177271000000000 219.000000000000000 152 145 108
-15.460687999999999 -6.176873000000000 219.000000000000000 151 140 97
-15.071180999999999 -6.204693000000000 220.000000000000000 155 143 99
-14.611117000000000 -6.204323000000000 220.000000000000000 156 145 97
-14.151085000000000 -6.203969000000000 220.000000000000000 152 143 95
-13.691082000000000 -6.203629000000000 220.000000000000000 82 62 32
-13.231112000000000 -6.203305000000000 220.000000000000000 65 53 29
-12.771167999999999 -6.202995000000000 220.000000000000000 64 51 28
-12.311249000000000 -6.202701000000000 220.000000000000000 78 59 31
-11.851355999999999 -6.202420000000000 220.000000000000000 81 57 23
-11.391484000000000 -6.202157000000000 220.000000000000000 71 47 15
-10.931633000000000 -6.201907000000000 220.000000000000000 65 40 0
-10.471800000000000 -6.201673000000000 220.000000000000000 91 59 24
-10.011982000000000 -6.201453000000000 220.000000000000000 98 68 32
-9.552180999999999 -6.201248000000000 220.000000000000000 110 71 45
-9.092393000000000 -6.201059000000000 220.000000000000000 113 74 48
-8.632616000000001 -6.200884000000000 220.000000000000000 148 108 75
-8.172848000000000 -6.200725000000000 220.000000000000000 148 123 85
-7.713086000000000 -6.200581000000000 220.000000000000000 163 139 102
-7.253331000000000 -6.200450000000000 220.000000000000000 183 162 131
-6.824458000000000 -6.228519000000000 221.000000000000000 195 175 144
-6.362620000000000 -6.228420000000000 221.000000000000000 163 152 106
-5.900779000000000 -6.228334000000000 221.000000000000000 167 169 130
-5.438937000000000 -6.228264000000000 221.000000000000000 173 174 134
-4.999613000000000 -6.256392000000000 222.000000000000000 167 157 120
-4.535672000000000 -6.256351000000000 222.000000000000000 137 126 91
-4.071724000000000 -6.256326000000000 222.000000000000000 139 100 44
-3.607767000000000 -6.256317000000000 222.000000000000000 129 87 27
-3.157959000000000 -6.284503000000000 223.000000000000000 129 87 27
-2.691887000000000 -6.284524000000000 223.000000000000000 121 92 21
-2.225800000000000 -6.284559000000000 223.000000000000000 121 91 20
-1.759697000000000 -6.284610000000000 223.000000000000000 147 126 54
-1.293575000000000 -6.284677000000000 223.000000000000000 156 125 79
-0.827432000000000 -6.284758000000000 223.000000000000000 161 133 84
-0.361266000000000 -6.284854000000000 223.000000000000000 167 137 92
0.104923000000000 -6.284965000000000 223.000000000000000 172 140 77
0.568578000000000 -6.256907000000000 222.000000000000000 161 132 68
1.037383000000000 -6.285233000000000 223.000000000000000 151 124 65
1.496914000000000 -6.257205000000000 222.000000000000000 170 146 95
1.952294000000000 -6.229190000000000 221.000000000000000 181 151 106
2.381675000000000 -6.144814000000000 218.000000000000000 175 144 98
2.811560000000000 -6.088635000000000 216.000000000000000 168 121 70
3.263331000000000 -6.088847000000000 216.000000000000000 170 121 71
3.697940000000000 -6.060882000000000 215.000000000000000 195 121 91
4.147697000000000 -6.061121000000000 215.000000000000000 196 126 102
4.597495000000000 -6.061375000000000 215.000000000000000 196 126 102
5.070813000000000 -6.089836000000000 216.000000000000000 196 126 97
5.522792000000000 -6.090121000000000 216.000000000000000 194 124 95
5.974819000000000 -6.090420000000000 216.000000000000000 173 98 67
6.456648000000000 -6.118932000000000 217.000000000000000 175 90 39
6.910867000000000 -6.119261000000000 217.000000000000000 174 88 37
7.399078000000000 -6.147806000000000 218.000000000000000 162 73 32
7.855498000000000 -6.148169000000000 218.000000000000000 159 69 28
8.311975000000000 -6.148544000000000 218.000000000000000 148 67 32
8.808731000000000 -6.177141000000000 219.000000000000000 150 69 34
9.309737000000000 -6.205757000000000 220.000000000000000 150 70 44
-105.168098000000001 -9.060638000000001 290.000000000000000 149 151 137
-104.889510999999999 -9.088309000000001 291.000000000000000 148 150 136
-104.248763999999994 -9.084759999999999 291.000000000000000 168 158 94
-103.608444000000006 -9.081236000000001 291.000000000000000 173 162 79
-102.968620000000001 -9.077738999999999 291.000000000000000 173 161 78
-101.977592000000001 -9.043081000000001 290.000000000000000 174 160 78
-101.340843000000007 -9.039645000000000 290.000000000000000 171 162 59
-100.704552000000007 -9.036234000000000 290.000000000000000 173 163 66
-100.413757000000004 -9.063995000000000 291.000000000000000 172 162 65
-99.776131000000007 -9.060620999999999 291.000000000000000 173 160 61
-99.138962000000006 -9.057271999999999 291.000000000000000 173 159 59
-98.502212999999998 -9.053948000000000 291.000000000000000 171 155 57
-97.865875000000003 -9.050649000000000 291.000000000000000 163 160 59
-97.564087000000001 -9.078465000000000 292.000000000000000 162 159 58
-96.926413999999994 -9.075202000000001 292.000000000000000 159 158 53
-96.289146000000002 -9.071965000000001 292.000000000000000 159 150 57
-95.979873999999995 -9.099811000000001 293.000000000000000 161 155 60
-95.341247999999993 -9.096610000000000 293.000000000000000 162 156 70
-95.026245000000003 -9.124471000000000 294.000000000000000 161 155 70
-94.707290999999998 -9.152334000000000 295.000000000000000 160 152 66
-94.065521000000004 -9.149187000000000 295.000000000000000 161 147 72
-93.107437000000004 -9.115059000000000 294.000000000000000 160 145 71
-93.097656000000001 -9.173957000000000 296.000000000000000 157 148 72
-93.079582000000002 -9.232837000000000 298.000000000000000 154 146 70
-93.363380000000006 -9.322672000000001 301.000000000000000 158 147 60
-93.634536999999995 -9.412470000000001 304.000000000000000 160 148 62
-93.281409999999994 -9.440327000000000 305.000000000000000 150 146 53
-93.531670000000005 -9.530073000000000 308.000000000000000 152 147 55
-93.166313000000002 -9.557919999999999 309.000000000000000 148 148 64
-92.797011999999995 -9.585773000000000 310.000000000000000 146 146 59
-92.720939999999999 -9.644542000000000 312.000000000000000 142 133 73
-92.341560000000001 -9.672394000000001 313.000000000000000 130 121 61
-91.958267000000006 -9.700253000000000 314.000000000000000 111 105 74
-91.571006999999994 -9.728116999999999 315.000000000000000 113 104 94
-90.891257999999993 -9.725114000000000 315.000000000000000 117 108 96
-90.498260000000002 -9.752999000000001 316.000000000000000 123 108 113
-90.101326000000000 -9.780893000000001 317.000000000000000 123 108 113
-89.700432000000006 -9.808790999999999 318.000000000000000 124 110 110
-89.295592999999997 -9.836696999999999 319.000000000000000 134 108 109
-88.609031999999999 -9.833783000000000 319.000000000000000 126 102 103
-87.922820999999999 -9.830894000000001 319.000000000000000 116 81 74
-87.510445000000004 -9.858839000000000 320.000000000000000 107 71 65
-87.094109000000003 -9.886791000000001 321.000000000000000 133 99 90
-86.404647999999995 -9.883960999999999 321.000000000000000 111 75 70
-85.982535999999996 -9.911937000000000 322.000000000000000 120 109 87
-85.291611000000003 -9.909147000000001 322.000000000000000 121 103 107
-84.601005999999998 -9.906383000000000 322.000000000000000 133 120 109
-83.910751000000005 -9.903644000000000 322.000000000000000 160 148 138
-82.703896000000000 -9.839433000000000 320.000000000000000 156 168 152
-54.009757999999998 -6.694179000000000 218.000000000000000 93 40 20
-53.298327999999998 -6.661744000000000 217.000000000000000 96 41 23
-52.591361999999997 -6.629341000000000 216.000000000000000 98 40 26
-52.130211000000003 -6.627653000000000 216.000000000000000 100 42 28
-51.669266000000000 -6.625983000000000 216.000000000000000 99 43 30
-50.971438999999997 -6.593659000000000 215.000000000000000 108 49 32
-50.513016000000000 -6.592030000000000 215.000000000000000 108 49 32
-49.821967999999998 -6.559763000000000 214.000000000000000 120 52 39
-49.366050999999999 -6.558173000000000 214.000000000000000 133 59 41
-48.681767000000001 -6.525961000000000 213.000000000000000 139 67 47
-48.001925999999997 -6.493780000000000 212.000000000000000 142 69 49
-47.550812000000001 -6.492253000000000 212.000000000000000 160 79 65
-46.877719999999997 -6.460125000000000 211.000000000000000 152 85 56
-46.429085000000001 -6.458638000000000 211.000000000000000 154 91 67
-45.980629000000000 -6.457167000000000 211.000000000000000 157 94 69
-45.532336999999998 -6.455710000000000 211.000000000000000 155 102 71
-45.084212999999998 -6.454271000000000 211.000000000000000 148 110 70
-44.847805000000001 -6.483428000000000 212.000000000000000 147 108 69
-44.607311000000003 -6.512590000000000 213.000000000000000 147 108 69
-44.155441000000003 -6.511184000000000 213.000000000000000 139 112 75
-43.908909000000001 -6.540356000000000 214.000000000000000 131 107 69
-43.658301999999999 -6.569533000000000 215.000000000000000 107 82 45
-43.403606000000003 -6.598711000000000 216.000000000000000 134 102 67
-43.144835999999998 -6.627894000000000 217.000000000000000 138 110 81
-42.881981000000003 -6.657080000000000 218.000000000000000 126 87 61
-42.615040000000000 -6.686270000000000 219.000000000000000 126 87 61
-42.344028000000002 -6.715464000000000 220.000000000000000 98 59 33
-41.878574000000000 -6.714143000000000 220.000000000000000 112 75 27
-41.601512999999997 -6.743352000000000 221.000000000000000 134 104 58
-41.134239000000001 -6.742059000000000 221.000000000000000 132 102 57
-40.667110000000001 -6.740781000000000 221.000000000000000 156 134 107
-40.382030000000000 -6.770016000000000 222.000000000000000 164 145 116
-39.913074000000002 -6.768765000000000 222.000000000000000 172 157 124
-39.444256000000003 -6.767531000000000 222.000000000000000 157 137 88
-39.151150000000001 -6.796792000000000 223.000000000000000 142 121 73
-38.680495999999998 -6.795585000000000 223.000000000000000 145 121 85
-38.209983999999999 -6.794394000000000 223.000000000000000 162 142 105
-37.739597000000003 -6.793221000000000 223.000000000000000 140 131 95
-37.269343999999997 -6.792063000000000 223.000000000000000 124 95 67
-36.799216999999999 -6.790922000000000 223.000000000000000 95 67 37
-36.329211999999998 -6.789796000000000 223.000000000000000 90 60 41
-35.859344000000000 -6.788688000000000 223.000000000000000 107 77 36
-35.389583999999999 -6.787596000000000 223.000000000000000 111 82 42
-34.763359000000001 -6.756086000000000 222.000000000000000 113 90 27
-34.295943999999999 -6.755032000000000 222.000000000000000 143 121 90
-33.828654999999998 -6.753993000000000 222.000000000000000 176 157 123
-33.211193000000002 -6.722551000000000 221.000000000000000 150 146 106
-32.746223000000001 -6.721549000000000 221.000000000000000 160 142 104
-32.135295999999997 -6.690153000000000 220.000000000000000 157 140 116
-31.672649000000000 -6.689188000000000 220.000000000000000 158 142 117
-31.210100000000001 -6.688238000000000 220.000000000000000 169 173 129
-30.607897000000001 -6.656909000000000 219.000000000000000 138 124 77
-30.009996000000001 -6.625601000000000 218.000000000000000 125 112 65
-29.551950000000001 -6.624709000000000 218.000000000000000 144 121 81
-29.227459000000000 -6.654215000000000 219.000000000000000 151 116 93
-28.898869999999999 -6.683730000000000 220.000000000000000 152 117 94
-28.566164000000001 -6.713253000000000 221.000000000000000 155 126 96
-27.975034999999998 -6.682037000000000 220.000000000000000 173 146 116
-27.513254000000000 -6.681216000000000 220.000000000000000 173 156 138
-27.051556000000001 -6.680409000000000 220.000000000000000 154 137 108
-26.589949000000001 -6.679620000000000 220.000000000000000 134 117 87
-26.128418000000000 -6.678844000000000 220.000000000000000 143 126 95
-25.666971000000000 -6.678085000000000 220.000000000000000 142 132 95
-25.205604999999998 -6.677343000000000 220.000000000000000 115 105 69
-24.744308000000000 -6.676615000000000 220.000000000000000 95 79 41
-24.283093999999998 -6.675905000000000 220.000000000000000 113 96 58
-23.821949000000000 -6.675209000000000 220.000000000000000 134 147 98
-23.360878000000000 -6.674530000000000 220.000000000000000 131 137 95
-22.795784000000001 -6.643529000000000 219.000000000000000 146 144 99
-22.336943000000002 -6.642884000000000 219.000000000000000 147 145 100
-21.878164000000002 -6.642255000000000 219.000000000000000 137 124 87
-21.321646000000001 -6.611313000000000 218.000000000000000 108 87 57
-20.865091000000000 -6.610718000000000 218.000000000000000 102 82 53
-20.408591999999999 -6.610137000000000 218.000000000000000 134 124 97
-19.952154000000000 -6.609574000000000 218.000000000000000 157 147 120
-19.406338000000002 -6.578709000000000 217.000000000000000 163 162 125
-18.952100999999999 -6.578178000000000 217.000000000000000 167 163 122
-18.497910000000001 -6.577663000000000 217.000000000000000 182 170 107
-18.043773999999999 -6.577164000000000 217.000000000000000 182 170 107
-17.589684999999999 -6.576679000000000 217.000000000000000 195 180 142
-17.135643000000002 -6.576210000000000 217.000000000000000 199 185 147
-16.758514000000002 -6.606061000000000 218.000000000000000 176 162 134
-16.302465000000002 -6.605621000000000 218.000000000000000 157 142 108
-15.846456999999999 -6.605197000000000 218.000000000000000 143 126 94
-15.390485999999999 -6.604788000000000 218.000000000000000 148 134 95
-15.003059000000000 -6.634690000000000 219.000000000000000 157 143 104
-14.545069000000000 -6.634311000000000 219.000000000000000 163 147 108
-14.087114000000000 -6.633947000000000 219.000000000000000 143 116 93
-13.629187000000000 -6.633599000000000 219.000000000000000 129 102 79
-13.171291000000000 -6.633266000000000 219.000000000000000 97 82 51
-12.713423000000001 -6.632949000000000 219.000000000000000 82 62 21
-12.255578999999999 -6.632648000000000 219.000000000000000 86 69 27
-11.797760999999999 -6.632361000000000 219.000000000000000 94 71 35
-11.339964000000000 -6.632092000000000 219.000000000000000 91 70 33
-10.882187000000000 -6.631837000000000 219.000000000000000 74 60 8
-10.424431000000000 -6.631598000000000 219.000000000000000 93 65 4
-9.966688000000000 -6.631374000000000 219.000000000000000 104 74 14
-9.508962000000000 -6.631166000000000 219.000000000000000 109 72 20
-9.051247000000000 -6.630972000000000 219.000000000000000 135 95 62
-8.593544000000000 -6.630795000000000 219.000000000000000 163 122 91
-8.135852000000000 -6.630635000000000 219.000000000000000 160 134 98
-7.678164000000000 -6.630488000000000 219.000000000000000 158 132 96
-7.253453000000000 -6.660634000000000 220.000000000000000 163 142 94
-6.793686000000000 -6.660518000000000 220.000000000000000 157 137 88
-6.333921000000000 -6.660417000000000 220.000000000000000 171 151 103
-5.874156000000000 -6.660333000000000 220.000000000000000 172 163 130
-5.414389000000000 -6.660264000000000 220.000000000000000 176 169 146
-4.977139000000000 -6.690485000000000 221.000000000000000 176 169 146
-4.494841000000000 -6.660174000000000 220.000000000000000 164 149 120
-4.035058000000000 -6.660152000000000 220.000000000000000 147 131 100
-3.575265000000000 -6.660146000000000 220.000000000000000 121 91 42
-3.115461000000000 -6.660155000000000 220.000000000000000 124 96 32
-2.655643000000000 -6.660180000000000 220.000000000000000 140 111 47
-2.205792000000000 -6.690493000000000 221.000000000000000 150 129 82
-1.751745000000000 -6.720824000000000 222.000000000000000 154 132 85
-1.281897000000000 -6.690621000000000 221.000000000000000 154 119 86
-0.816209000000000 -6.660435000000000 220.000000000000000 123 91 52
-0.354680000000000 -6.630262000000000 219.000000000000000 162 139 94
0.103162000000000 -6.630379000000000 219.000000000000000 163 142 95
0.558469000000000 -6.600237000000000 218.000000000000000 172 131 88
1.014274000000000 -6.600384000000000 218.000000000000000 174 131 90
1.463364000000000 -6.570271000000000 217.000000000000000 182 131 94
1.908304000000000 -6.540170000000000 216.000000000000000 183 132 95
2.338167000000000 -6.479804000000000 214.000000000000000 189 131 102
2.785735000000000 -6.480010000000000 214.000000000000000 194 126 96
3.233337000000000 -6.480231000000000 214.000000000000000 191 121 85
3.680978000000000 -6.480467000000000 214.000000000000000 189 120 83
4.147950000000000 -6.511002000000000 215.000000000000000 185 113 82
4.597764000000000 -6.511271000000000 215.000000000000000 176 106 74
5.047620000000000 -6.511553000000000 215.000000000000000 174 93 54
5.523092000000000 -6.542140000000000 216.000000000000000 161 81 42
5.975132000000000 -6.542454000000000 216.000000000000000 156 68 29
6.427223000000000 -6.542785000000000 216.000000000000000 149 69 30
6.911213000000000 -6.573422000000000 217.000000000000000 148 68 29
7.365499000000000 -6.573784000000000 217.000000000000000 146 66 33
7.855875000000000 -6.604458000000000 218.000000000000000 146 66 33
8.312367000000000 -6.604854000000000 218.000000000000000 147 70 41
8.768917000000000 -6.605265000000000 218.000000000000000 149 77 42
9.267848000000001 -6.635992000000000 219.000000000000000 151 79 44
-103.612037999999998 -9.700199000000000 291.000000000000000 156 157 109
